# 3D point list with one line of data per point:
#   POINT3D_ID, X, Y, Z, R, G, B, ERROR, TRACK[] as (IMAGE_ID, POINT2D_IDX)
# Number of points: 364, mean track length: 5.3166541070082891
4055 1.4867041472576243 0.4508499810458107 1.3827975683988043 67 72 75 0.25723982768489362 31 850 47 1189 56 806 23 1195 12 1122 14 776
2358 0.028128307172475817 -0.10603167249085922 0.60197459222741556 28 28 28 1.070699536385334 54 442 18 454 3 497 26 412 49 546 48 385 2 322 9 718
3233 -0.065164634559277734 -0.14409768718583169 0.62160370074071603 28 28 28 0.30085295817721652 49 983 37 510 7 285
4048 -0.20130181698136815 0.12696133104127541 0.66842566802023906 179 185 197 0.42767142688981841 31 831 47 1164 23 782 12 697
2363 2.3793400607503843 -2.268705251779652 1.0897459496095436 89 89 87 0.32334866130291895 54 529 18 549 3 661 26 604 49 744 33 1130 37 1089 22 707
3754 1.6330799395277384 -0.80956281550710385 1.4043374428956787 63 63 55 0.10671244275308028 19 138 36 122 31 111 47 109
2364 -0.15288666738840045 -1.8279211136069151 1.0740703778019554 179 180 184 0.27637643811140861 42 624 18 592 26 118 33 137
3247 -0.33507913757354446 -0.23223778243656204 1.2156843303804756 30 28 29 0.2347900705010835 33 373 37 780 22 720 48 911
2365 2.1406494379205583 -2.10151702811444 0.84244928497432747 66 65 61 0.24635481415880464 54 570 18 599 3 1074 26 946 49 1144 33 1166 37 1115 22 1094 48 754 2 780 9 790
2732 2.4592421028916882 -2.2899854697032072 1.1402022852988454 67 60 52 0.44166065161641282 42 957 3 1335 26 1138 49 1408 37 1346 22 1288
4063 1.49161392898517 -1.5776356021423956 0.53991728005755568 133 135 132 1.4904332590056422 31 901 35 997 47 1248 23 1125 12 1183
2366 2.2333876238237926 -2.0407454481486473 0.81919412372893885 82 87 90 0.45604593514427988 54 933 18 620 3 1369 37 1379
3241 0.76089482142526421 -2.0918911500490958 0.97548452220027349 40 41 39 0.084720087708668804 33 147 37 659 48 592
4056 0.32293565043238559 0.34513738367654079 0.91722936196899918 69 74 77 0.5750917226776453 31 862 47 1193 50 778 23 1054 56 429 12 962 13 423 11 1010 14 767 52 602 17 433
5081 0.8819873670713696 -0.78675657509737673 2.584928596969255 255 255 255 0.28379230525732463 12 636 17 383 52 311
2367 -0.22616930092508156 -1.7282534584604703 0.90744668193135414 21 20 18 0.43469368812662434 54 166 18 625 3 683 26 623 33 716 37 1054 49 1407 22 1010
2368 2.2297063426419865 -1.9716738270432372 0.76228494648007872 61 59 60 0.59101964593959466 25 91 54 952 18 636 49 817 3 1102 33 1191 37 782 22 813
2371 2.2138996460126017 -1.8191540760861182 0.62769509932015954 119 127 134 0.2859525461301185 54 986 18 671 26 982
3826 0.92016604718395767 0.5485763821048385 1.7350601293534351 255 255 255 1.0521296985542847 35 650 36 1265 50 1079
2372 2.5482688207066682 -1.8011919861428136 0.76679412799836433 133 137 141 0.59000663458750136 54 202 18 675 26 984 3 1129 49 1467 22 1351 48 1062 2 1057
3319 0.21920768509405655 -1.2321684400345434 1.4579796195745778 95 81 71 0.076497541986700099 37 187 22 172 48 562
2373 2.5433123225491459 -1.7916340715164585 0.73633876583264124 65 64 60 0.20704856937208516 42 177 18 678 3 1135 26 989
2804 1.8424720033448398 -2.3545867682335762 2.0432562521444471 90 91 95 0.29081790771485222 3 20 26 497 49 23
2374 -0.42417499324553443 -0.54318096749169653 0.77152255726451513 174 176 175 0.23792023808810323 39 275 42 797 18 751 3 832 49 1223 37 1159 22 1084 48 940 2 938 9 939
3313 -0.083088005667423651 -2.1539909402967998 1.1619303946304067 42 35 34 1.5988812506563563 49 1958 37 1829 3 1871 18 1707 26 1586 33 1987
2377 2.1198686461107275 -0.18761795187994837 1.5097961516026952 69 70 69 0.4451094046982893 54 1348 18 787 3 431
2808 1.2988671097048814 -2.2908762831021279 1.6854609530200819 41 38 35 0.60523433716332442 3 560 26 505 49 614 37 586 2 520 9 869 7 538
2378 0.32529635417972497 -0.11615837640394062 1.1016636275101379 183 186 189 0.24172073778678743 54 793 18 802 3 1213 26 773 49 933 33 930 22 792 48 653 2 235 7 590
2379 0.54058106354991109 -0.11339082610472277 1.1091428006758917 65 64 60 0.17388785483416211 54 796 18 811 3 884 49 1270 33 1290 37 1207 22 802
3834 0.66614563100559299 0.2107881214486626 0.72473885046744313 49 44 33 0.11923788520406581 19 1395 36 1337 31 1121
2380 0.78744087419732789 -0.19699382291735038 0.93876700169783656 129 108 88 0.21922584427718725 54 802 18 823 3 1234 49 1285 33 1300 37 1228
3327 -0.33999446161978325 -0.51967272975330481 0.83076848208936571 10 11 5 0.21756122282740478 37 374 22 333 48 625 2 616 9 650
2381 0.19613526445918358 -0.11558916002619327 0.90364578970589049 38 43 46 0.41792881751690036 42 856 18 824 49 949 33 945
2812 2.0163255924240318 -2.2944944594264687 1.8812698463752728 77 73 74 0.25186317966491584 3 574 26 523 49 627 37 596
2382 0.54701884462533157 -0.037647598249268055 0.97590549031328611 72 73 77 0.39575720069088777 42 867 18 837 3 1245 26 1054 49 1292 33 957 48 691 2 682 9 696 7 949
3321 1.0703728621460991 -2.1603520022970186 0.76073402722081374 254 239 211 0.13403909499326025 37 204 22 216 48 266
2383 -0.25065259029313236 -0.11706386476116684 0.6430050110325356 76 68 67 0.31950463838225573 54 820 18 845 3 916 26 389 33 484 37 903 22 432 48 330
2384 1.9591270696629726 0.19376238766877976 1.4907154709549975 44 45 40 0.30891132280662592 25 843 18 846 26 815
2593 0.69855602641724013 0.18264021127266028 0.71538873148195015 90 83 73 0.26843863777851379 28 319 6 1058 38 586 19 615 35 527 36 586
2385 -0.094797658285011771 -0.14096894406087621 0.56688684933704403 62 58 49 0.42639778206527135 42 453 54 433 18 849 3 921 26 410 49 990 37 925 22 853 48 721 2 698 9 715 7 974
2752 0.20770893782904948 -1.1359041692427936 1.2427528542521806 255 255 255 0.85205201496209793 18 1626 3 1765 26 1568
3110 0.022950070944145234 -0.19867376184454832 0.87166272872920436 36 38 35 0.30297834140977614 49 492 33 445 37 454 22 404 2 260 9 292
2387 0.31479037290725864 0.11697707444806457 0.6506330976101441 15 20 21 0.22690141113032211 42 923 18 891 3 954 26 1092 37 952
3778 1.3222707782300882 -0.72408118737603522 1.4533198416069277 109 105 95 0.12866060328750303 35 149 36 545 31 151
2388 0.72062335402518585 -2.1100490026950514 0.96094147788985995 157 135 117 0.13666284227820216 54 917 18 938 3 1021 26 900
2597 0.38067317698384112 0.36887520428429366 0.96980868625334959 136 144 155 0.27348283808026402 40 354 6 1112 38 668 19 1034 35 828 36 1019 31 868 47 1202 50 783 23 1058 56 656 12 970 13 842 11 1019 17 1077 14 777 52 607 24 655 15 19
3271 0.0078254656457073524 -0.18410911992581461 1.019055158059156 20 25 27 0.22432691724666043 33 922 37 1183 48 951 9 658
2389 1.5689582887315829 -2.1910822738989562 0.69178604891990381 72 75 78 0.4655848885651655 25 520 18 950 49 1423
2756 0.52619912741849828 -0.074676744595287101 1.5068960803909783 255 255 255 1.8885740941774076 54 1711 3 1823 26 1542
2393 -0.0054452647496473329 -0.5894904548714216 1.2297899450431382 28 26 26 0.25781421348858918 54 734 18 1065 3 1157 49 1194 37 1127 22 1048
2760 0.094057807310969882 -0.072575711988408564 0.60109194960678514 35 38 37 1.4466594468775167 18 1731 3 1868 49 1950
3118 1.4484269401606964 -2.3130722964085595 1.7670445821859844 87 88 83 0.4070293355696637 26 503 33 594 37 580 22 560 48 519 2 516 9 565
2394 -0.59983759551289173 -0.63574861581843478 0.85946243091261043 69 58 55 1.1858134080891101 8 779 18 1070 3 1416 37 1138
3627 0.11085306212684502 -1.6002446021281633 1.3560007167095072 46 48 44 0.62967587108879763 57 680 6 576 19 519 39 1014 41 1021 25 1019 45 970 18 635 40 733 6 915 38 735 35 448
2396 -0.57248593594861386 -0.43554183334361923 0.60239138065777431 101 102 107 0.47996772415072964 42 1131 18 1098 26 331 33 417
2605 1.9746446354307468 -0.031995513560663928 1.6841606091737287 255 255 255 2.4718821115806771 40 1096 6 1277 38 985
3279 0.65826824885572499 -2.1295850283189646 1.0596534349979672 61 63 62 0.52285226967943088 49 1073 37 1321 22 1421
2398 -0.11214579469678285 -0.17877885447667521 0.74250025173034084 40 40 40 0.22756566279983964 42 1163 54 1123 18 1128 3 1233 26 1044 49 1282 37 1216 48 982 2 966 7 944
3273 2.3446420825066823 -1.7750971144475367 0.62428588843762278 69 76 82 0.39149276651986353 33 1493 49 1483 37 1204
2399 0.61502143779280483 -0.0034860419086515855 0.99777881813981295 87 88 88 0.232509090385596 42 444 18 1142 3 909 49 967 37 893 22 827 48 695 2 291 9 318
3116 0.49937828260785827 0.052275102831126956 0.7068415806503664 80 79 77 0.049324105968663073 49 1008 33 546
2400 0.59509661824944393 -0.0095074839948457671 0.88720080542105217 62 54 50 0.41805452183878672 54 827 18 1149 3 489
2401 1.2387416470850543 0.15929472684494675 1.1710722242784068 65 66 69 0.13029993284983005 54 1153 18 1156 33 1326
2704 0.090899773521363997 -0.16950350588257074 0.91038656112559901 30 32 31 0.1847797259912427 54 393 3 886 49 942 37 848
2403 0.63317851663264813 0.13050876172995335 0.67373057187811614 63 59 58 0.26457728360377442 54 1185 18 1175 26 1099
3730 0.20300408821089833 0.29798057505566061 0.73112327385481624 67 72 75 1.4693833451729046 19 1582 35 1169 36 1565 31 1279 50 1213
2404 0.27830919346678773 0.22987136809544434 0.50298940810643089 132 120 117 0.46388325548422876 54 884 18 1183 3 964
3223 2.1223069231450475 -1.8882587642560038 0.63585889083620917 61 64 64 0.21588518334994455 33 825 37 389 22 450
2405 0.52066530561315527 -2.1777559818140957 1.1096833259082601 58 56 54 0.69448084002279797 54 1206 18 1194 3 1311 33 1380 37 1502
2708 0.39024428126302318 0.077655212917531913 0.651200695141532 34 34 31 0.37904854369233432 42 911 3 951 2 344
2406 0.76668483196977788 -2.1768917463301674 1.4699322103877346 112 110 113 0.423429605862638 54 1423 18 1196 3 1305 26 1300 49 1576 33 1755 37 1297 22 969
3217 1.1049159518072134 -2.0249198975261482 0.68434540684215672 46 28 21 0.23226162720116517 49 272 37 284 22 726
2409 -0.044775134611614475 -1.7081185674297361 1.1477812028429599 41 43 42 0.58028521246946974 42 1268 18 1229 3 1348
2712 2.3225883990240939 -2.3242757842462711 1.1160775454757581 72 77 78 0.29200447694714132 18 532 3 1030 26 907 49 1099 33 1113 37 1077
2410 1.3072141423944614 -1.9750528386067652 0.33926549216294277 84 64 52 0.37334778947278763 42 1251 18 1238 3 1550
2411 1.5177541997921922 -1.8561035389192644 0.36946742153017059 122 123 125 1.0043890522535228 42 1262 18 1255 3 1562 49 1766 33 1799 26 1360 37 1668 22 1584 48 1516 2 1410
3738 -0.22004198598561375 -1.9132795560326399 0.99109058096794744 255 255 255 2.7398438878975244 19 1661 38 1268 35 1211
2412 0.33367023191993239 -1.3019147543541163 1.3998947239206196 57 56 48 0.15262672686121831 42 1304 18 1267 3 1370 49 1428 33 1444
3231 0.082482339324728718 -0.18476710469708801 0.94633242617335944 18 23 19 0.085653060826385893 49 480 37 444 9 278
2413 0.1874422217939683 -0.12422453771035526 1.4767012886476119 255 255 255 0.30761898744716581 42 1514 18 1309 3 1428
2716 1.3443583184455183 -2.0503253424355892 0.46461260738637039 79 80 80 0.22761445552166867 18 609 3 1087 49 1156
2414 -0.45999837420146578 -0.20676294342434676 0.74492566950246331 255 255 255 0.91378824288719973 42 1372 18 1339 26 1244 33 1535
3225 0.56744598435975491 -0.039826145125179527 1.3470165885905558 57 59 58 0.35211501744291629 3 419 37 403 48 248 9 652
2415 0.43883318301870977 0.078888593787236935 0.82181470627297881 93 97 102 0.59261617440958336 54 1158 18 1371 3 1262 26 1076 33 1329 37 932 22 858 49 553 2 318
2416 0.18530548202450145 0.010056759483665155 0.647420696645438 17 21 22 0.19631808348654889 42 1194 54 1395 18 1373 26 1269
2417 0.03129037070667047 -0.0040698536145408332 0.50929625967538339 92 92 92 0.2758553703635061 54 1169 18 1384 26 1082
2784 2.1024821162178671 -1.8824546452606652 0.6182729757373201 36 40 41 0.302063030361994 54 178 26 242 49 358 33 827
2419 0.50996763472434747 0.10158115431799464 0.66025010478850354 183 183 189 0.32998746986117378 54 1404 18 1392 3 1481 26 1283 49 1552 33 1579 22 1179 48 1048 2 1010 9 744 7 681
3810 0.15591646891775585 0.31949452499979142 0.93237743436651987 78 83 89 0.23314172909322894 19 1037 36 1023 47 985
2420 0.11004481029769264 -2.2240829033857406 1.183555634748946 70 62 60 1.2264733659165519 25 1603 54 1561 18 1404
3303 1.3967568079547001 -2.2057748081530697 0.6549874663001638 71 70 66 0.45351594702645681 49 1884 37 1778 22 1685 48 1603 2 1533
2421 0.5294576463066909 -2.1430232755700818 1.0721599870888239 219 218 223 0.6870822965226917 54 1212 18 1413 3 1641 26 1126
2788 -0.70063398885915296 -0.59931787739647691 0.63812065234032378 25 25 25 0.23841223768733608 54 322 26 306 49 891 37 797
2422 1.1502856061671614 -2.0214287242969031 0.61635836442958181 76 58 45 0.20541251059837642 39 1232 18 1428 3 1533
3297 1.5321252472791131 -2.0546777259138223 0.54302835331012211 57 57 57 0.23343301109168052 33 1881 37 1655 22 1567 48 1512
2423 0.70523204183935551 -1.6770194476763718 1.7886459899373406 255 255 255 0.93783234899586743 42 1457 18 1433
2425 -0.11590851560379561 -0.22549653313624698 1.0244814364708488 106 109 114 0.47585862781623484 42 1355 54 1344 18 1495 3 1595 26 1239 49 1674 33 1702 37 1572
2426 -0.11808389109686468 -0.22242977686832952 1.0293467813217574 106 109 114 0.53790710641395834 42 1354 54 1345 18 1496 3 1596 26 1240 33 1701
2427 0.69981941338472486 -0.038530191486558889 0.82187967850893395 219 216 220 0.53761739302576639 54 1390 18 1514 3 1469 26 1267 49 1545 33 1572
3818 -0.77270136718606208 -0.30693128036016432 0.55701226288690509 255 255 255 0.90042166941889323 19 1386 36 1173 47 1440 23 1034
2428 1.7965389707828983 0.27364691522663226 1.3808438740347251 67 67 70 0.11946420434357989 42 1546 18 1517 3 1620
3311 2.2716935855896994 -2.2733720340122878 1.0444466983541971 91 95 96 0.90004785656850161 42 38 18 545 37 710 49 740 33 749 22 703
2429 0.31868620214239768 0.13911725723159088 0.59209128883080442 29 33 34 0.13790003171776086 42 1554 18 1524 33 1742 22 1375
2796 0.59920039316839857 -0.020625581703027994 0.77040150438092359 46 39 37 0.17380004799267637 3 507 26 444 49 998
2431 2.3735861936550227 -1.8215153736081611 0.69398554393882828 112 121 130 0.70472017140090382 25 1455 18 1558 3 1681 42 1274 49 1765
2432 0.1865903261580551 -0.029623497607127583 1.4348636727231068 255 255 255 1.2074701927351459 54 1347 18 1582 3 1705 26 1480 49 1779 33 1897 26 1541
2577 0.65753818872336567 0.19838800292257044 0.69910791005127937 89 85 74 0.43985055806120776 45 374 57 484 6 722 19 625 36 594
2433 0.63256203452101711 -0.01291886568890833 0.92126578095711631 43 40 36 1.1734249408727091 54 1531 18 1590 3 1727 26 1415 49 1864 37 1749 22 1645 33 1827 48 1604 2 1564 9 1562 7 1596
3094 1.880133061819016 -2.2617091556498128 1.882504161398467 88 89 84 0.35579236114069784 49 64 33 61 37 74 22 84 48 119 2 119
2436 2.384119887834208 -2.3696958150965743 1.1839459857909891 255 255 255 1.458667034114483 54 1558 18 1607 26 1512 33 1931
2581 0.50711450423983018 0.28274873140228063 0.65392726325964268 67 65 57 0.43623491942511211 45 815 6 764 38 623 35 559 36 1178 31 987 47 879 50 454
2437 -0.35229832786036919 -1.7041639514658284 0.85416295868850756 77 68 59 0.83138134853132284 54 1586 18 1621 3 1754
2440 0.47674363961033805 0.080306905722405314 0.76963582167134015 58 58 56 1.0331905029616044 54 1654 18 1664 3 1828
2585 2.1323428066293699 -1.6354264069954578 0.59343205215124939 124 124 121 0.22387039172139372 45 876 6 841 35 352 36 429 47 418
2441 1.4394731385494253 -2.0709426290656032 0.54567659133258639 55 59 62 0.6177447748719459 42 1729 18 1680 3 1850 49 1928
3102 2.0511716430025375 -1.8606621451546312 0.58451653768286604 112 114 112 0.22914250969327568 25 130 49 367 33 332 22 466
2442 1.4702573721658849 -1.9510446234239054 0.42450651477691237 82 86 85 0.65279319194176399 42 1734 18 1685 3 1855 49 1934
3611 0.26810217894920074 0.25815078172122075 0.51803877966899814 251 245 245 0.90544245061036699 38 1213 19 1502 35 1057
2444 0.72611887172274159 -0.052084774951169435 0.87457219914327977 164 146 137 0.91229334709996834 42 1787 18 1729 3 1866 49 1949 37 1794 22 1694 48 1606 2 1566 9 1565 7 1598
2589 2.0108036434521503 -0.6532773278241758 1.1874236386842516 119 103 90 0.53221987509062041 1 1071 59 774 6 938
2446 -0.092201107586427647 -0.32119932943255791 1.3307184205699867 255 255 255 0.37497326520547536 42 1825 54 1808 18 1763
2447 0.36602944864165893 -1.1507833691473039 1.4242210769784549 46 46 45 0.55699372202394204 42 1831 18 1780 3 1914 26 1659 49 2004
3100 1.6197084900941181 -2.2520990171787862 0.77167318802230511 66 75 74 0.087410480800474047 49 232 33 211 37 262
2448 0.094136264894363941 -0.71795400252683184 1.3236783213688998 255 255 255 1.9155766303472941 54 1831 18 1783 3 1902 26 1654 49 1969 33 2025
2657 2.2023380944822923 -2.027496986447562 0.80241466041372722 50 54 53 0.24667778792585415 54 128 3 251 26 209 49 325 33 813
2449 1.5709777555343285 -0.12800321991143859 1.9983242779669423 255 255 255 0.6879655549227468 18 1786 26 1667
3174 1.3108204785226178 -2.3117702322115017 0.70569402168189854 209 161 126 0.19771106505315719 26 1320 33 1641 37 1338 48 1207
2450 1.8088304255661667 0.37681209352900674 1.5414390943642866 0 0 0 2.4283991739111426 25 1891 54 1834
3683 1.0574008533239161 0.52697369517794757 1.1792594850188851 37 40 45 0.33125414947687137 6 439 19 761 35 627 36 729 47 687 50 540 31 637 23 827 56 421 12 712 13 411 11 728 17 405 14 325
2451 0.069837782535946136 -1.2446402197354411 1.4422448602199147 255 255 255 1.1029704592016534 54 1836 18 1793 42 1839 26 1671
2661 2.1682893050079901 -1.8373238093930389 0.62479489976849512 68 77 86 0.38169353671545347 18 206 3 292 49 837 37 411 22 468
2455 0.024515441263766181 0.029715841700466775 1.0453875463037525 66 74 77 1.3834833909122262 42 1853 54 1858 49 2025
3172 2.0623555772988413 -2.2955226385055423 1.9087372884027634 58 53 47 1.6793540095409765 26 874 33 1613 37 1007 49 1357
2456 1.1591087109842804 -1.9066727210963552 0.62991053810894992 165 165 163 0.58489766088028106 39 587 59 569 41 545 45 23 18 628 8 56 25 583 42 617
2665 -0.37710493246095655 -0.55171568826441153 0.79879377630198778 32 28 25 0.14465386356206442 18 750 3 360 33 380
2457 2.1395770523510311 0.4031237941009832 1.5962613424817309 77 79 81 1.9422971843419652 42 1752 18 1662 39 1776 59 2020 41 1858 57 1877 8 1324 25 1804 1 1851 10 1425 54 1750
2458 0.35318855926877923 0.057500634075763668 0.81823133520096736 95 99 103 1.010620155416696 41 1191 25 1176 54 1154 18 1370 39 1377 41 1585 8 859 42 1397 10 1067 59 1729 49 1314 33 1325 37 1245
3691 1.8545952476589311 -0.07351789079588282 1.4729408849569088 111 112 116 0.27981770643959114 19 1181 35 742
2460 1.4703422492709564 -1.7965903717750511 0.28688021834162714 91 92 89 0.76672689647669368 39 1444 41 1252 42 1582 18 1561 57 1264 25 1457 1 517 54 1591 26 1466
2669 -0.16533929655154211 -0.23395522522991005 0.89264666367640033 24 29 32 0.19238111032321811 18 358 3 426 49 466 33 924 37 428 22 788 48 268 2 225 7 588
2462 0.94685392920447864 -1.9204330477507712 0.8303294872237279 157 146 140 0.22424160803832549 45 480 40 30 38 39 6 27
2463 0.44776201776764801 -1.7143321155655762 1.5221428671956152 15 21 21 0.11170298586129643 59 689 40 102 19 508 1 131 36 522
3180 1.2589779475820913 -2.1720110715207741 1.6261546399064244 68 68 64 0.42878512729445961 49 1726 33 1759 37 1615
2464 0.48690455126152044 -1.7115619233849206 1.5617274707624016 31 35 38 0.099014273540976111 59 182 40 105 31 124 36 523
2609 -0.1034650206587082 0.15343720350777909 0.66244435529227941 140 148 161 0.1282227121533219 40 634 6 1323 38 856 19 1419 35 801 36 1363
2465 -0.32767159343020602 -1.4995630107726732 0.91808543149966615 193 196 201 0.21019264168407528 45 168 40 109 19 103 38 122 35 99 36 102 31 98 47 513 50 432
2768 0.27394932201906497 -2.2548836539189994 1.1798283916618102 27 25 28 0.2122647155561454 3 553 26 18 49 39 33 593
3126 1.7780190008457941 -2.1923620134527946 1.4462769631247483 16 23 26 0.84220564242365925 49 142 33 677
2467 1.1675831482495771 -0.9625599149005456 1.0934324944312315 15 14 9 0.20160875010485965 28 151 40 139 38 462
3794 0.26947388198851707 0.34543603754335922 0.93332558615002348 41 46 50 0.4604204862287547 6 808 36 720 31 325 47 689
2468 1.1048337914865676 -0.58657974023425719 1.5610953819948665 44 48 49 0.13714331056278295 28 200 40 178 6 641 35 500
2613 2.3626063955558405 -1.5917280737881703 0.74460496841027679 112 112 110 0.55712202005399458 1 1257 6 1367 36 797 31 896 47 1056 50 635 23 952 12 337 14 285
3287 0.17305033673493656 -0.043581244066697007 1.3975185513206132 255 255 255 0.23445345196566897 49 1670 37 1559
2469 2.2350362297020232 -0.27241238517984107 1.5352642884339949 58 49 33 0.5587067159450706 25 357 40 181 6 637
2772 0.3893200374504634 -2.1997170999230038 1.1170134360223636 15 13 18 0.3077147695241147 3 42 26 33 49 72
2473 0.27601957942537403 0.20115043902163685 0.53160208997099168 190 189 191 0.3976832662696162 45 802 40 301 6 351 38 270
2776 -0.20575280486093539 -1.7826848353905365 1.0542208154185662 54 53 59 0.56295025329369419 3 152 26 135 37 152 22 620 9 868 2 883 7 1115
3134 2.3338296791798174 -2.1276963801888136 0.94843608738031004 128 132 135 0.29023956308537663 54 925 33 786 37 317 3 202
2474 0.14639655375933563 0.19641902204692704 0.5144242045820332 221 207 196 0.59486141279311533 45 397 40 307 38 275 19 276 35 222 36 223 31 203
3643 0.98377200261372777 0.23062271979232246 1.0071643401529251 143 144 143 0.2442390097010447 38 612 35 238 36 633
2476 0.83139150398421025 0.27935947027218333 0.91830060900932597 51 50 46 0.22829078943884759 10 401 40 315 38 628
2621 -0.27808409663028755 -1.4609211078533486 0.97870696898965659 40 40 48 0.68230945754834205 28 924 40 1059 6 1523
3295 0.68396104150149584 -0.54552620520770922 1.6282756510471337 208 209 214 1.7807727980205006 49 1843 37 1652 22 1544 48 1375
2478 0.76105043570843967 0.35627495093864742 0.94646093664653619 34 33 28 0.22197774905128426 45 430 40 338 6 784 38 651 35 275 36 670 31 594 47 927 50 744 23 762
3289 2.2433226384804299 -1.8288726838816176 0.64546838999770584 86 97 101 0.34134361677308711 33 1680 37 1577 22 1499 48 1272
2479 0.69915687662677339 0.36102298202501937 0.95060838927630131 43 47 48 0.1106375702928503 45 434 40 343 6 408
3132 0.31754960497780604 -1.3463173285222365 1.4428091698587784 173 170 165 0.44115485560705608 3 252 33 763 37 182
2480 0.80474915763108712 0.46537787327422031 1.0708363324950725 61 61 59 0.18657372033340969 45 445 40 358 6 812 38 672
2561 0.84787263208650443 -1.9418771605132159 0.85429569501504865 221 210 197 0.17937725936428081 40 405 6 490 38 400
3078 1.9557104898846274 -1.50117066076692 1.9123701398563606 50 55 56 3.1937882452994053 18 1814 49 2027
2482 1.6417057199252225 -1.6475638424265653 0.41025580097260389 17 17 16 0.56852282588554259 45 869 40 381 6 461 38 372 31 3
2483 1.4994429972136221 -1.6529800601080693 0.36528788554740371 14 14 12 0.49116569019157613 45 1196 40 385 6 1133 38 695 19 1063 36 1062 31 691 47 1049 50 631 23 686
2484 1.10478726902917 -1.9430586386265543 0.64742250655754241 204 185 158 0.31478570263478745 59 1387 40 390 38 23 35 364
2565 -0.44333708779943681 -1.5680692675339991 0.92215295095413663 150 154 166 1.5373684995820613 45 165 6 569 19 493 38 120 36 106 31 101 47 123 50 95 56 118 24 261
2487 1.7609311200923174 -0.58587173521151392 1.2027299278782804 144 106 52 0.5166637197410886 10 590 45 220 40 512 38 480 35 450
3076 -0.27077223354636254 -0.26662339556414211 1.1796606599452555 38 38 38 1.5476229366318737 3 1892 49 1972 33 2001
2488 0.30566929032187473 -1.0219456097156165 1.3992881996236748 10 9 7 0.29531910586974375 1 212 40 513
2569 2.9952349371720022 -1.7702632809748255 3.6761111174286949 255 255 255 0.96278222226875476 28 927 6 605
2489 1.2676722378179681 -0.62997782278720693 1.5422379707623648 46 51 47 0.21310940476589491 45 642 40 522 6 980 38 513 19 920 35 727
3086 1.1337557854558544 -2.2933607718006797 1.6495982797032052 81 80 78 0.15364703959150602 49 33 33 29 37 38
2490 1.6621150688630519 -0.19383891742385712 1.3777430192651248 161 137 110 0.21248777674534264 45 266 40 546 38 535 35 177
3595 1.3774587561221838 -1.5937750538336091 0.38225930563666055 60 57 53 0.57861507866025608 45 1429 19 1309 36 1269 47 1054 23 950 56 542
2492 1.8136931010360819 0.36591324779417733 1.3669731639398155 63 64 59 0.62322913644684697 59 968 40 622 38 620 19 996 6 756
2573 1.0116413352738394 -0.67445943371234329 1.4545175202483995 17 19 14 0.094425386243253917 45 640 6 629 19 916
2494 0.85438733045793736 0.34352491465629387 0.95311652355582144 51 49 45 0.44920506207851801 1 889 40 641 6 780
2495 0.90609478177837277 0.46772410505096867 1.0770226921698627 31 31 29 0.6138462477106974 45 848 40 657 6 1114 38 894 19 1031 35 825 36 1226 31 856 47 1183 50 522 23 801 56 402 12 409 13 392 11 360 14 28
3084 1.0788174213030619 -2.3154221928984673 1.6544077122695875 77 74 69 0.29571509981275246 49 26 33 22 37 23
2496 1.7193139951280583 -1.6524505532242533 0.45351606298358094 18 20 19 0.11216423507984953 45 870 40 676 6 838
2641 0.0058899155066137023 0.25324714266325327 0.68141225453138499 108 116 127 0.56888258162785754 40 1311 6 1737
3878 1.2107730877788072 -0.95918078304994325 1.1312546319068777 69 65 54 0.17318432869395642 19 111 31 86 50 51
2498 -0.0189726589151629 -2.0626635800308035 1.0297425137285663 187 184 181 0.20692133721191164 28 907 40 711 6 872 45 1224 38 425 35 64
3667 1.9839071377139741 -0.17665649095221816 1.4608851097245257 51 51 49 0.31450136457880529 19 923 35 495 36 567
2499 -0.042931931105351304 -1.6466350905345275 1.2290017347843314 19 23 24 0.24389667364303916 45 961 40 730 6 910 19 868 35 445 36 856
2500 0.31338029308536525 -1.1217523310308524 1.23813283669604 106 103 99 0.26170635675404375 45 1274 40 755 6 944
2645 2.1914809698843589 0.28415255579298881 1.496428521382432 154 153 148 1.3991991540844293 1 836 45 772 6 1057 8 1031 25 1174 1 1573 45 1376 28 1006 38 1001 35 928 36 945 36 1347 47 1145 50 924 23 1016 56 599
2501 1.1780232919891607 -0.74376994368679339 1.3942886965995678 24 26 21 0.38338293119123795 10 586 40 774 6 971
2503 0.13784498344453411 0.14319164293921424 0.51092206717770472 179 173 170 0.28951547408405459 45 1382 40 858 38 594
3156 0.8474139118831312 -0.12026015485366805 0.94824507055689855 19 21 18 0.42666303060742083 49 971 33 1308 37 1240
3877 2.0194258312889199 -0.57144237746817994 1.2284220465926012 84 77 69 0.074170310035476916 36 502 31 84 47 474 23 53
2505 -0.33718783126127738 -1.5169831356093997 0.88235703197114146 18 19 19 0.30574040683791359 45 1467 40 929 6 1391 38 935 19 1458 35 1016 36 1297 31 1077 47 1274 50 1007
3166 2.5571021711956639 -1.9182205191446187 0.87590826040359093 83 73 63 0.24959332694553704 26 1174 33 1470 37 1148 48 1060
4908 0.59394316330713015 0.35315126381785922 1.6183308374447518 82 85 90 0.3141067491852893 12 587 13 543 11 886 14 468 52 454 4 1201 15 714
2510 0.56177338118663434 0.15327401437455274 0.65986228031901717 52 53 46 0.60730913915897444 28 1133 40 1120 6 1458
2511 0.21630272042839221 0.16479588343965718 0.51347852904103086 163 158 156 0.6382450414908436 28 1136 45 1672 40 1122 38 1133
3164 1.5010860522638938 -1.9702408838797432 0.45747494625784496 86 90 91 0.49879647460269655 49 1451 33 1466 37 1557 22 1343 48 1061 2 1054
3885 0.10935069542366509 0.25467838877026561 0.77364478647964219 70 76 76 0.28187554512348945 36 313 31 286 47 263 23 152
2512 -0.29446011246029241 -0.32429429825385186 0.88980843193340686 25 30 27 1.6695541741028002 45 1719 59 1816 40 1179
2721 -0.10733790810060666 -0.64197002732902197 1.2323398305932334 69 54 34 0.49707253323020756 18 1061 54 1052 3 1152 26 997 49 1461 33 1199 37 1118 22 1045
3894 0.82571028219632758 0.50431393248699063 1.1894610061944155 45 46 48 0.39001386683054579 19 380 31 344 47 714 50 562 23 569 12 463 13 444 11 426 17 452 4 29
4912 0.91113763389279279 -0.46305061784808615 2.2636061135871399 55 59 61 0.43947115966278949 12 617 13 571 11 955 17 1260 14 735 52 778 17 1031 24 852 4 1312 15 834 21 1166 32 711 51 943 58 572 20 805 30 363 43 529
2514 -0.63725979063848814 -0.44013901334513289 0.69401265413029056 188 188 194 2.0469764431747386 1 1820 25 1840 45 1812 57 1835 6 1684 38 1278 35 1160 19 1603 36 1503 31 1242 47 1436
3747 0.95003937926212023 -2.031975730540835 0.86113788623983645 30 30 24 0.96397366790211647 19 1084 38 1061 45 879 59 1615 28 889 40 398 40 906 35 851 31 411
2516 0.55526029582843428 -0.92421976647692805 2.001085064023167 112 109 102 1.2263017402536154 1 1815 57 1803 40 1260
2725 -0.10434813340900997 -0.21556310445900953 0.88447915911521757 17 21 22 0.45280721370484539 18 799 3 1212 26 1038 54 789 49 1259 33 1533 37 1420 22 1327 48 1401 2 1367 9 1327 7 1452
4907 1.68331544112141 -0.17350782600957174 2.1977517909420627 50 48 46 0.32105899009991445 12 861 13 533 11 624 17 979 14 486
2517 0.011352988532628365 -0.32696662482377731 1.0852858435042114 255 255 255 2.3334659859106153 1 1870 45 1861 40 1288
2519 1.149761089976767 0.47737809725363828 1.2505373614114002 255 255 255 1.2256437683060593 10 1377 40 1297 6 1710
3236 1.1651931760198246 -2.3487319558645972 1.7439142246153641 51 54 54 0.58647600119165955 49 595 37 562 22 537 48 488 2 481 9 62
3893 0.47121747871710418 0.42513580142067092 1.0706216396281796 63 67 70 0.17846901353149713 36 388 31 343 47 712 23 572 12 471 13 449 11 760 52 59 24 382 15 24
2520 0.4845982075992798 0.2180506116962462 1.0990530922352948 16 18 17 0.53863870002946546 45 1885 40 1325
2729 0.61772813068426791 -0.011939608474413927 1.0680059276949516 66 66 64 0.084478701470588599 18 1132 3 1236 33 1298
3902 0.22214246663291976 0.23543289423713731 0.5179532883961302 233 215 196 0.071779769853899805 36 612 31 542 47 163 50 110
4927 1.7624341188240344 -0.079294873557047174 2.3381648210713157 36 36 34 0.48556791688257439 12 874 13 765 11 947 17 999 52 518 24 546
2521 1.4850296979375843 -0.21508178105553841 2.1120980255615676 111 111 108 0.25308490777847126 39 303 10 278 40 246 59 345 28 234
3246 1.1115587833501828 -1.9853016828154728 0.62024305590635365 237 221 191 0.43079065154234925 49 789 37 737 22 742 48 709 2 766 9 430
2526 1.1260560372020225 0.30639262954922059 1.0902836559617348 38 38 38 0.29916671967784236 8 355 39 494 10 687 40 864 28 860 59 1348 6 1321 38 850 19 1238 35 791 36 1197 31 585 47 915 50 492
2527 -0.040444987084337691 -1.642423890068629 1.2225996608223046 46 52 55 0.31576271679978807 39 659 59 1125 41 1014 42 673 10 527 28 465 40 729 57 1025 25 1015 45 962 38 454 35 444
3244 2.26659094787321 -2.2758402194873959 1.0408720493787675 72 77 78 0.28373102727234012 49 741 37 711 22 704 48 701 2 376
3901 0.21674721991597029 0.21562331329051598 0.50987995446974743 143 121 107 0.34849913652595266 35 549 31 534 50 105
2528 2.2934128119342927 -1.6414738197452095 0.63556996066737859 84 84 83 1.3689533566543601 57 1502 1 1463 10 954 45 1428 40 897 39 1001 59 607 41 602 57 610 8 447 28 387 6 468 6 1365 31 694
2673 0.28305356468864085 -0.069774019012277005 0.88177961986786069 41 45 48 0.33775783667809806 18 429 3 469 49 509 33 477 37 488
2529 2.2382860775778517 -1.4713025446141736 0.84227897922876682 70 69 65 0.11150424583720221 59 127 6 24 19 21
3190 0.69964794114946638 0.12942211486215113 0.74770643702564743 107 109 108 0.81667628123420088 37 1826 22 1698 48 1609 2 1569 9 1517
3699 1.2142907800551141 0.37962636215207762 1.1927723083418651 114 118 121 0.33722627631333474 6 1091 35 810 36 1213 31 1009 47 1169 56 789
2531 0.9036841760397003 -1.9203779160122354 0.8305485207988057 209 198 191 0.20364995761557059 40 31 6 30 38 40 35 33
2532 0.87314661982877706 -1.9270002480753372 0.84231064402923272 206 196 190 0.093747189308361178 40 32 6 32 38 41 19 35
2677 0.58015759201134798 -2.2745659108782093 1.4783539167441027 116 117 119 0.35302289589233166 18 7 3 544 26 7 49 1033 33 577 37 968 22 930
2533 1.3836497066633715 -1.43423278598403 0.57672292036638217 56 55 46 0.17009204516104406 45 505 6 35 19 26 47 30
2535 1.4468270981911464 -1.3262120600803762 0.76488358085941943 40 41 36 0.28134474035963741 41 191 6 69 38 57 35 38 47 46 13 15
3188 2.0453505668151011 -2.1578890554021029 2.0170086478796496 162 162 164 1.4243393886007043 49 1907 37 1800 22 1721 48 1638
2536 1.2923425950239871 -1.2350415325583055 0.8296139463372727 31 27 17 0.20761725872794146 45 154 6 84 36 48
2681 2.0351652521864367 -2.2831586917953186 0.9514179804252958 55 59 62 0.26830242834711554 18 73 54 33 3 642 26 589 49 732 33 739 37 700 22 695
2537 1.8734260614398779 -1.2062994989958702 1.0189604120032953 66 63 58 0.21863801944454408 28 95 6 85 38 82 36 46 23 36 47 58
3198 -0.30429440382885792 -1.6464976489756726 0.98149437732885336 87 86 86 0.78784686791666791 26 1678 49 2018 33 2059 37 1886
2538 -0.32462708271573132 -1.5355686227687064 0.83954965015052074 194 194 197 0.3468610693320896 40 100 6 117 38 116 19 86 35 83 36 92 31 88 47 102 50 75 56 86
3707 1.1765121836598784 -0.97398484690609033 1.1024498850396172 20 20 15 0.17746997562564762 38 938 35 877 50 998
2540 0.55621756045719495 -1.7767467091553881 2.0145601608611652 255 255 255 0.31995863607687886 6 153 19 147 35 132
2685 2.2012088777141878 -2.1499463124401261 0.91339516526058606 56 57 59 0.15883755196290167 54 76 3 692 33 775 37 300 22 748
2542 1.6696375206821901 -0.80678839569662752 1.4344696421969718 32 33 27 0.20057265569581367 59 261 6 178 19 140 31 117 47 118
2543 1.2134279316841021 -0.83808874467643246 1.2860641422339651 43 40 31 0.19828777485601737 45 211 6 180 31 120
3196 -0.47810572464087081 0.0097428238497413635 0.69967055564427949 255 255 255 1.5118034123632835 49 2017 33 2050
2544 0.14870316905071218 -0.99691744297745988 1.1917711052257203 51 45 34 0.11723959754765098 40 157 6 188 38 170 35 151
2545 0.47157727054289916 -1.0390261253771746 1.4625378243042493 39 38 34 0.18333641326749098 40 156 6 189 19 167 36 168
3142 2.1930452143979244 0.018707902427225198 1.4458016909202558 224 216 214 0.33836337285621937 18 1130 33 975 37 1239
2546 1.3887684201088435 -0.73997973287099816 1.4396000351043956 42 43 37 0.14263315684995798 45 219 6 192 38 167 19 156 35 138 36 148 47 148
3651 0.74728470445903605 0.43451786702013928 1.0078993349740497 35 35 32 0.27844271295538442 19 731 35 301 36 699 31 304 50 196
2547 2.0386279821496669 -0.41868662690708042 1.3209884059768717 71 67 58 0.3036504917008141 45 643 6 200 19 543
2548 -0.55941643445893974 -0.53071904536367576 0.62169130825798524 106 104 105 1.3609961350444899 40 195 6 221
2629 1.1355315975483424 -1.1540456184075811 0.81633430169497512 15 14 14 0.22455773436772697 40 1210 6 1635 35 1144
2549 1.3761130800387427 -0.48557209543348728 1.7378469596916639 46 48 47 0.037268020350093939 45 253 6 232 36 220
2551 -0.44620399924833187 -0.24351239523969251 0.74995151745760147 213 212 217 0.21159284192857006 45 310 6 293 19 252 36 241 47 231
3140 -0.20105102059883689 -0.24459029459839943 0.91428154534560102 123 127 128 0.2503006523238907 3 417 33 914 37 421 22 373 2 217 9 655
2552 2.2228929997147411 0.22016034263873799 1.4613095752168395 104 98 94 0.40403607911467887 1 392 41 425 6 319 47 177 50 130 23 101
2633 2.2340299532779722 -1.5098037262233199 0.78419199847633458 70 72 71 1.266992669928751 45 1797 6 1674 31 1261 50 1174 23 1419 56 1038 12 1303 11 1453
2553 2.0459720163036219 0.17801859206792778 1.5162307815420208 105 101 96 0.10525777620918352 45 753 6 326 38 251
3150 1.4973446268526776 -1.9086118349215693 0.40844340292513237 130 138 140 0.32330988913876191 42 131 49 1182 33 1197 37 1168
2554 0.3862112931498784 0.2035597096049627 0.55567466863001591 59 61 60 0.52531016320711799 45 384 6 348 19 254
3659 1.4261007400767292 -1.4391565467418874 0.62166475353548278 49 49 47 0.26221655951324191 6 493 35 374 36 807 50 358
2556 2.0479013931450378 0.38168995258423444 1.4622860530952211 124 129 133 0.15643138837770632 45 398 6 369 38 279
2637 0.50599783185513059 -1.7591911553926904 1.8430646840525948 15 16 16 1.4601671874067648 28 1296 40 1253 38 1310
2558 0.63510225474699566 0.322404362123279 0.91243710327054683 59 63 66 0.36271276658476037 28 348 6 401 38 647 19 1003 47 623
2559 1.9440363799179208 0.46514984389249753 1.5902447760121523 80 79 78 0.5544162504954282 40 332 6 406 38 317
3148 1.9197459238368406 -2.0906671439129205 0.72816735322426696 61 62 57 0.66807123600619944 3 1080 33 1168 37 1122 22 787 48 760
2560 1.7149903732652003 -1.4818942148803649 0.64179084535393649 81 80 76 0.30433535366748676 57 655 6 483 19 416
2563 1.811884400311524 -1.2111402450883844 0.99498143168937991 82 79 74 0.17345512333802574 28 94 6 541 38 81 36 45
3506 0.94164265246291978 -1.6064587879056851 2.12152399274868 167 141 117 0.99474208418418697 28 1332 38 1292
2564 -0.086295515165142639 -1.6994009047784004 1.1314104268772995 19 18 14 0.2605734034682235 40 456 6 561 35 433
4023 0.31054274036285312 0.32531558331965488 0.88605219762091192 60 70 72 0.54306834584078378 6 421 47 953 11 374
2570 1.61391247585704 -0.74211015248630396 1.4911385088426257 30 31 25 0.27950109617773744 45 622 6 610 38 163 35 477 1 705 36 879 31 133 47 534
2571 0.086048868869386938 -0.96432969928910528 1.1847874710374042 99 76 48 0.25460228919963368 40 517 6 614 38 174 19 554
3514 1.712197887771479 -0.36796048827672456 1.2663699969882491 180 163 134 1.4811845593587185 39 794 57 294 8 252 45 657 38 181 6 210 59 812 35 147 50 80 56 341
2572 2.0322010883281583 -0.36162241047943805 1.3692470170635398 64 64 58 0.46043737677657526 10 597 45 236 6 628
4031 0.84348933768970091 0.48727770980745644 1.0966897002958931 70 71 66 0.3279235268595993 31 632 47 973 23 822
2574 1.4245820219596965 -0.54402853238854132 1.6748332373452 52 54 51 0.21669392198925244 45 655 6 642 19 574
4025 0.33801602568020978 0.32401677677834873 0.90432426929551468 74 82 85 0.57987002914154184 36 1002 47 955 23 806 24 372
2575 -0.44622956254694313 -0.27182808744025205 0.7103543871680883 26 26 27 0.51219851562722118 45 717 6 680 38 231 19 614 35 212 36 618 47 605 23 499 56 415 13 138
2576 -0.72270209089292015 -0.29879288856602504 0.63664237815389157 52 53 58 0.44704450727023526 40 253 6 682 38 572 19 960 36 950 31 570 47 916 50 509 23 802 56 651 12 753 13 693 11 785 17 534 14 640 52 413
2579 1.0992255024327924 0.29330283625518028 1.085247463817002 82 82 82 0.16283211774174297 45 403 6 762 38 286
3458 -0.11167827660214524 -0.64078395831512602 1.1485156066990272 254 252 246 1.3699952398896762 59 1221 38 537 19 211
2580 1.0984053683851718 0.29409432300935756 1.0778371094084604 82 82 82 0.55579271522607099 45 402 6 763 38 285 19 672 57 473 36 268 47 603
2582 0.87088537476764294 0.40811529839758881 1.0119506698720198 101 106 107 0.41082654557489401 28 359 6 798 38 656 19 1018 35 604 36 685 56 376
3969 1.372638789935779 -1.7569571376176061 0.1882633655190491 99 81 66 0.39636260516243466 19 1303 36 1266 31 1051 6 1498 38 1054 35 985 47 1240 50 842 23 1121 56 722 12 1072 13 779
2586 -0.063278241835101404 -1.7871915943017123 1.1109519912706136 128 129 130 0.2339062564896042 40 723 6 894 38 437 36 493 47 506 50 86
2587 -0.18658324128419035 -1.4949622043158757 0.98066525607320965 19 16 11 0.24258953696700231 40 470 6 912 38 455 19 859 35 98 36 847 31 470 47 837
3466 1.2289743282987158 0.3729251495713034 1.1770396499633657 58 59 64 0.2594813348156414 6 392 38 643 19 1007 35 590 36 988 31 599 47 929 50 751 23 779 56 378 12 686 13 388
2588 -0.45249633113936555 -1.5239831483769328 0.9728027000517635 255 255 255 0.42088430441900154 45 563 6 913 19 872
3983 1.9563830007935883 0.46356458875477685 1.4929716335753394 95 102 103 0.26634270829640738 31 280 47 256 23 164
2591 -0.0090579884523935925 -1.1788508073412356 1.3551392053744853 255 251 248 0.67516157437158797 45 1006 6 959
2592 2.2853145093556892 -0.49294654898602663 1.3537069557811718 112 90 60 0.41663985554560218 45 1035 6 962 38 756 36 849 31 459 47 482 50 402 23 409
2598 0.40424823822030304 0.37811054914577036 0.97585564498518373 52 57 65 0.63189135808659291 40 886 6 1113 19 1286 38 896 36 1242 47 1350 50 958 35 827 23 1200 56 812 12 1125 13 839 11 1020 17 1075 14 773 52 814 24 654
3264 0.30323074747518874 -1.1390077121364421 1.2880840723649889 161 151 146 0.67251391920909853 49 1152 37 1097 22 1279 48 1368
3921 -0.48020902739667209 -1.5955087700087822 0.98045819120448574 45 46 51 0.86954436124553947 36 512 31 746 47 843 50 109
2602 0.14115952482470345 -1.8031620881890182 1.2035413695452841 54 55 57 0.41796608584491707 57 1290 6 1183 19 1114 36 840 47 830
2603 1.6547907200446463 -1.0197779644371072 1.1845629873732366 53 50 43 0.40770875182846561 45 1268 6 1196 38 733 19 1117 36 1107 50 666 47 1089 56 566 23 714
3418 -0.64436668489751048 -0.44132995608033659 0.74821359940042587 67 68 73 0.75832137585734949 26 1682 37 1882 22 1777 48 1689
4309 2.1158593428042876 -2.3619251281585556 2.0150356955608393 255 255 255 0.71507977429061709 37 1862 48 1683 2 1648
2604 1.7116675235439978 -0.55929027836867273 1.2665435284302304 165 138 99 0.49255122582554406 40 1075 6 1225 38 1090 19 1360 36 1306 31 1083
3935 2.1441446539036271 -0.047740033358134357 1.5276145321298593 23 22 18 0.51126637108874873 19 1378 31 970 47 1302 50 1018 23 1273 56 887
4302 1.9715906838054338 -2.4630368790954114 2.1547333159518658 84 79 72 0.43714007221036494 22 1654 48 1577 2 1543 9 1533
2606 1.9404089094025765 0.0016972877375164125 1.5865256067914053 255 255 255 1.1132703514933791 40 1097 41 810 38 984
3272 -0.56973611660541257 -0.43697262609792753 0.60502428460710045 106 109 113 1.5922256458422075 49 1253 37 1196 22 390
3929 2.3539753359210343 -1.3947851915595542 0.96858851846782468 119 115 106 0.35463887223182683 38 906 31 905 47 1067 50 857 23 962
2607 1.7522973461026667 0.36870765856618126 1.3500061101056402 170 174 175 0.34988075047725042 40 862 6 1319 19 1417 35 794 36 1198
2608 1.7534669280599062 0.36761014864995251 1.3540153310580425 170 174 175 0.28967652043533332 40 863 6 1320 19 1418 35 793
4306 1.4453002531164174 -2.0658425487136882 0.5311660153724086 85 90 94 0.51303498736841158 22 1715 48 1634 2 1572
2614 0.58461784141477713 -2.1337077278092185 1.0665489819732255 150 134 128 0.64881604051445929 40 1146 6 1373 38 1063 35 855 31 717 50 663
3280 1.091812261373851 0.091441177218848549 1.5183372905342289 69 74 75 0.9002168781780665 3 1719 49 1520 37 1414
4001 -0.024032541702843593 0.26806961473409147 0.90158424442701235 119 123 132 0.1988519285187941 31 333 47 704 23 566 12 758
2619 -0.2029499751404864 -1.7834644982724865 0.95356349685520736 255 255 255 1.6134959096997106 1 1478 45 1605 45 1691 6 1517
2620 1.1857352638504861 -1.1566056845459172 0.84533499039069149 50 49 43 0.53075685187221622 45 1612 6 1521 19 1452 35 1006 31 1065 47 1257 50 991 23 1133 56 740
4015 1.0382876112075521 -1.0229586418813135 0.93122420979867293 123 97 74 0.1017840187599322 6 914 47 810
2622 0.30422685754709805 -1.0728364770676821 1.2460496969007337 25 23 19 0.42670750255104695 40 1070 6 1530 38 1087
3288 -0.25496363785010095 -0.48650139984092761 0.87867708596166494 32 28 24 0.29706049212806357 49 1503 37 1563 22 1470
4009 0.85788726673061955 0.51497725803563343 1.4427187278861162 34 38 35 0.10562061746601341 31 672 47 754 23 639
2623 0.83546596657756667 0.32574064624292043 0.95105569463542339 127 126 124 0.27135273889610001 40 1134 6 1568 38 1147 19 1509 35 1067 36 1453 31 1205
4313 0.33911770374801481 -1.3696540592079551 1.6303337898370323 0 0 0 0.31813122161196145 33 2022 37 1833
2624 1.0518340028022852 0.61001296386057913 1.6162821328551424 255 255 255 1.773522643347494 40 1250 6 1573
2627 0.27393949028018499 0.24920311885407362 0.52237397415445652 253 248 249 0.78687061918012724 40 1228 6 1617 38 1250
3570 1.7574233650992064 -0.44401204753319012 1.236532997557007 105 87 74 0.083178452028003669 45 1041 19 904 36 873
2628 1.1085648900478537 -1.8643317525265626 0.71632375547814464 48 42 38 0.59304704437400124 45 1751 6 1628 19 1628 36 1532 47 1539 23 1335
2630 -0.21347319717359348 -1.4966434039338745 1.0535034270583112 24 24 22 1.416185229901564 45 1759 6 1636 19 1597
4081 -0.83384464423890758 -0.31083100993159524 0.76764553577549599 64 60 59 1.5528277352609745 31 1141 36 1358 47 1461 56 1025 13 1110
2634 2.4908596382655772 -1.5078285602917405 0.88425721974389526 79 70 63 0.44784607939647803 45 1822 6 1675 38 1288
2635 2.2203640421906434 -0.10941249849613213 1.5142835988266377 255 255 255 1.2905453638253301 40 1262 6 1683 19 1645 35 1192 38 1240 36 1547 19 1602
3578 2.1628170139465528 -1.7169897111418777 0.52830542084693188 65 66 62 0.60720858599768801 6 1362 19 1059 36 1267
2636 2.1233020840447532 -0.061439008564374793 1.6279404893810525 60 64 67 1.1943164266943371 40 1264 6 1686 38 1318
4095 2.3585459667913997 -1.4610584377268436 0.88377580001279521 62 63 58 0.51378483558186927 45 499 6 26 47 28 59 1426 41 1006 8 733 57 1018 42 1074 1 981 1 1270 10 481 28 420 19 418
2638 2.1016185626879889 0.40587088360154255 1.6242443146629744 94 94 92 1.6480126332093608 40 1293 38 1333 19 1691 35 1254 36 1629 31 1329 47 1633 50 1244 23 1466
4089 0.75795637062053167 -2.095121116394083 0.90790349027107675 255 255 255 0.4085108982265182 36 1535 47 1571 50 1178
2639 0.14825130595819949 -2.0490996633260798 1.0929726139583176 31 35 36 1.1964065481894699 45 1843 6 1715 38 1330 19 1660 35 1235 36 1581 31 1288 47 1548
2643 2.3462982431340893 -0.65648348869619866 1.2925107574828327 148 125 103 0.53707695079072992 57 259 25 328 6 161 39 249 28 166
3522 0.55094403936248948 -1.6868455674594465 1.7002814680560678 16 19 24 0.31961180299195058 6 577 19 127 31 142
2649 0.18163258025790532 -1.8985686203056102 1.1426810905594107 48 47 42 0.20258259232015446 18 579 3 123 26 583 49 154
3886 0.20484647666753933 0.29087262896886684 0.83858568843505099 99 105 105 0.36696834650954047 36 329 31 294 50 770 23 1040 47 1340 56 637 12 957 13 655 14 589
2650 1.842194032405712 -2.2763238115995286 0.87710448922477424 108 112 111 0.26307137816367548 54 32 3 144 33 197
3371 1.1278578623503084 -2.3561149232482648 1.7325650480770247 45 45 43 0.33083451339479025 37 963 22 1200 2 1098
2654 2.1180844990583245 -2.0961605504137175 0.83027179373776328 60 60 60 0.21519200721217144 54 102 3 211 26 650 37 749 22 772 48 755
4041 2.3164995786465004 -1.4205683129853082 0.92027424404036451 126 123 116 0.23302316592176875 36 1078 47 1066 56 547
2655 1.7785143233719873 -2.0879454956132824 0.66687589129485747 73 75 74 0.073063624572306182 54 105 3 217 26 181
3884 1.6208093298443096 0.43896604186956428 1.3560731370630779 66 64 62 0.20827420243062225 19 705 31 284 47 644 50 514 56 116
2656 1.7643371390896831 -2.0695600966067618 0.64469208133970679 42 43 45 0.090380750076424293 54 115 3 228 49 320 33 279
2659 2.2398160222221493 -1.9492938291534605 0.74999758521195903 61 61 61 0.21663213843469478 54 154 3 262 26 664 33 308
3474 -0.55552377679359954 -0.38442158866591336 0.65117422155508231 18 17 15 1.3555942776964718 57 1136 38 807 35 907
2660 2.411343782776429 -1.9117109220017916 0.80265933024516911 66 68 67 0.78211532798391548 54 626 3 267 26 669 49 350 49 1175 37 790 37 1153 22 1129
3991 1.314428500049639 -0.94115539909908519 1.1964197654790547 102 96 82 0.14082075665529273 36 505 40 496 47 493 56 57
2662 1.5478599146725529 -1.8415187223846254 0.3697542397368242 118 122 121 0.53753683996660861 18 202 3 295 49 848 33 843 37 828 22 878 48 793 2 413
2666 0.90946169505349539 -0.062671303936562187 1.5449821070540559 39 43 44 0.15589665048275886 18 347 3 387 26 341 33 897
2667 0.61166414564161675 -0.06886369621197766 1.4067553010670182 98 106 109 0.10194742133288498 54 362 3 398 33 408 49 443 37 392 2 202
3482 0.84148904726983142 -0.068148863538722307 0.92127230009785754 4 3 2 0.75377659196922375 6 1438 38 975 35 1041
2668 0.53995934352055763 -0.054337668505210733 1.3361128571569099 51 54 50 0.11713897544387249 54 370 3 413 33 916
3999 0.66134673059599802 0.44176892481246349 1.037269793114461 62 66 66 0.15813856902794188 19 744 47 681 50 221 12 429
2670 0.039386531336243952 -0.18724599504960068 0.854841161902542 86 88 89 0.2181636251638559 18 391 3 446 26 366 49 947 33 457 22 411 2 664 9 682 7 934
3993 0.10316305611128618 0.24094971902274248 0.62958070083564988 175 178 185 0.38720362915236878 36 271 47 595 11 325
2671 0.55437201287633109 -0.066289655170875997 1.0315623981434272 57 57 57 0.33941205241451827 39 415 3 454 26 384 49 950
